ply
format ascii 1.0
element vertex 1152
property float x
property float y
property float z
property uchar red
property uchar green
property uchar blue
end_header
-0.681788   1.08042  0.223711 131 124 114
0.0778068 -0.219104   1.24047 86 120 44
0.0303259 -0.272686    1.2988 185 223 110
-0.051206  0.938945   0.69944 215 212 205
-0.175844  0.973799  0.592954 213 210 203
-0.227424  -0.28799   1.13045 117 158 64
0.080133 0.756435  1.06408 102 93 86
0.0436396 0.0354024   1.06709 136 188 139
-0.227651  0.192374   1.39999 41 27 24
-0.742743   1.36614 -0.529687 157 154 149
0.0337978   0.11156   1.23949 64 81 49
0.0576041 -0.181883   1.00798 98 151 61
-0.719295   1.32717 -0.249217 199 190 173
-0.209877  0.879656  0.738525 220 216 207
-0.108405  0.749112   1.00612 93 85 72
0.0735935 -0.132725   1.28775 110 152 102
-0.296793   0.81428  0.824373 166 166 158
0.0998793  0.529697    1.4517 172 169 154
0.0554082 -0.182349    1.0009 96 149 71
-0.273239   1.06443   0.37693 170 164 148
-0.615263   1.28607 -0.104825 195 186 169
-0.0808424  -0.184489    1.35863 65 97 34
 0.039654 -0.244918   1.28677 167 209 143
 -0.69833   1.39637 -0.357834 186 178 159
  0.144596 0.00179556     1.3117 79 110 78
-0.0803629  -0.284336    1.20318 129 156 115
-0.0632503  -0.263008    1.38274 89 90 48
 0.0860269 -0.0630211    1.29541 108 138 112
-0.00595172   -0.220324     1.10036 98 146 86
 0.217005 0.0254643    1.3413 181 195 160
0.0567795 0.0529314   1.49961 93 64 56
-0.0319751   -0.19963    1.12775 87 130 102
-0.295739   1.09134  0.347135 158 151 141
 0.0304057 -0.0586733    1.37835 85 129 102
-0.0869596  -0.318685     1.3258 109 147 108
-0.740301  0.255864   1.64533 168 164 152
-0.0380465  -0.129915    1.10561 94 132 45
 0.174578 0.0786191   1.29795 114 150 102
-0.35701 0.298806  1.71186 145 145 145
0.170361  0.60511  1.37225 177 171 155
-0.138487  0.305553   1.23156 114 113 82
0.0162109 -0.172787   1.45003 131 166 86
-0.147454  0.923224  0.690338 208 205 190
-0.394307  0.361593   1.58904 140 133 123
0.0368432  0.570837    1.3618 153 149 148
-0.418214  0.380058    1.5583 130 123 115
-0.222835  0.328182   1.68444 99 86 70
-0.0377372   0.726349    1.07031 130 117 98
-0.231371   1.08122  0.373339 203 196 180
-0.235577  0.910996  0.685231 194 190 178
-0.607424  0.341113   1.56738 206 205 203
 0.0763989 -0.0687382     1.3022 63 97 60
-0.749375   1.45537 -0.487336 80 82 81
-0.560661  0.249552   1.73595 210 206 203
0.0550452  -0.19225   0.97179 193 218 196
-0.255922   1.11481  0.310947 205 199 187
 0.0564542 -0.0745335    1.30668 110 138 115
-0.789828   1.33594 -0.283236 197 196 194
0.0576392 -0.184735   0.99332 105 152 72
 0.170318 0.0690948   1.30869 106 134 94
-0.0141878   0.425725    1.50687 133 120 127
-0.181319   1.04607  0.445479 210 207 198
0.00544041  -0.131492     1.3692 101 134 91
0.0316184  0.604894   1.29767 99 95 86
  0.166317 0.00986278    1.32247 67 97 59
0.0195803 -0.348646   1.12426 54 71 26
-0.0684138  -0.262356    1.20262 156 206 147
-0.189777  0.221128   1.38272 89 81 70
 0.186559 0.0885138   1.40868 91 125 88
0.0049568  -0.14302   1.40426 93 129 93
0.0549647 -0.200953   0.94022 90 127 76
0.0690851 -0.224217   1.23117 174 208 147
 0.05143 0.603015  1.32518 175 166 149
0.053791 0.596546  1.32601 173 160 143
0.164111 0.629335  1.30185 142 138 135
0.0743745 -0.221032   1.22879 136 199 32
-0.566772  0.258673   1.69656 114 109 103
-0.107133  0.777679  0.949346 221 217 206
-0.00183088   -0.225002       1.109 105 144 91
-0.353383  0.302824   1.70633 151 146 140
 0.0479176 -0.0591574    1.40945 119 167 117
0.0666465  0.672003   1.19939 201 195 179
-0.0408919   0.331737     1.5247 98 69 61
-0.663917  0.318357   1.58041 211 209 210
-0.00687869   -0.215585      1.1133 60 97 53
-0.510006  0.270313   1.71583 194 190 181
-0.0866089  -0.312008    1.32631 129 182 154
0.0970375   0.74906   1.06795 195 184 166
-0.182065  0.231654   1.38408 50 50 42
-0.296435    1.0691  0.384002 193 186 176
-0.695374   1.26506 -0.100162 147 140 124
-0.234399 -0.285609   1.12144 75 111 39
0.00621637   0.544914    1.39669 67 63 60
-0.0129387   0.443615    1.48908 138 127 135
-0.446537  0.352694   1.58631 152 147 141
-0.547594  0.317089   1.62849 195 191 188
  0.05183 -0.188036  0.986171 210 235 213
-0.487624  0.405616   1.49092 189 184 180
-0.132353 -0.234562   1.08045 144 180 142
 0.0333158 -0.0572632    1.38524 65 111 75
-0.00656159   -0.153184     1.38568 110 156 120
0.0677636 0.0547817   1.52143 93 100 82
-0.0592213  -0.261676    1.38132 80 80 52
-0.257524  0.190435   1.39115 84 50 40
-0.201333  0.350255   1.66124 150 152 151
0.0726259 -0.220728   1.23345 135 199 40
 0.107707 -0.164255   1.03746 79 124 43
0.0409136  0.569521   1.36432 172 173 168
0.146592 0.636316  1.28971 202 198 187
 0.109398 -0.142451   1.08656 82 118 70
  -0.23529 -0.0253828    1.30042 62 71 40
0.0782795   -0.1253   1.27765 95 125 99
-0.462281  0.313388   1.66029 166 163 156
-0.0152729  -0.153359    1.38499 97 146 99
0.0650118 0.0511226   1.52068 60 85 46
0.0533409 0.0459818   1.07379 97 150 94
0.0552347 -0.189817  0.974635 187 214 179
0.0454357 0.0300294   1.51383 87 107 58
0.0568446 -0.223827   1.26635 129 193 79
   0.125999 -0.00448459     1.34734 58 88 50
-0.182787  0.347005   1.66516 136 132 123
-0.842979   1.24974 -0.169142 133 133 133
-0.237494  0.213597   1.37928 89 81 68
0.0173375 0.0181936   1.49776 81 51 41
 0.176058 0.0817448   1.29986 82 113 72
-0.744781  0.231951   1.67713 210 207 202
-0.309452   1.08214  0.359547 105 104 99
-0.294955   1.06521  0.394452 152 145 135
 0.133158 0.0355984    1.4268 85 96 79
0.0887312  0.659403   1.22803 208 205 196
0.0204847 -0.186678   1.08453 104 143 96
0.234756 0.614259  1.33991 186 174 150
0.0364913  0.574023   1.35573 163 159 158
 0.183001 0.0900109   1.28717 100 129 83
-0.379005  0.383834   1.56113 149 145 144
0.0732739 -0.221506   1.23945 131 192 29
0.0235406  0.540029   1.40866 127 126 124
-0.178926  0.756437  0.969971 216 213 204
0.0451872  0.510704    1.4656 131 127 118
-0.129965 -0.154097   1.37936 85 106 31
0.040719 -0.17263  1.02391 74 109 55
-0.183161  0.758365   0.96309 161 154 138
-0.475196  0.310833   1.65517 192 191 187
-0.320347   1.08211  0.354325 101 100 95
 -0.849402    1.19866 -0.0638321 199 199 197
0.0368736 -0.054488   1.38428 119 168 138
    0.126969 -0.000588839      1.34811 89 123 72
-0.553674  0.257328    1.7234 195 190 184
0.0715498 -0.220872   1.24329 120 182 45
 0.062638 -0.228166   1.22792 181 210 166
0.0194289  0.549634   1.39151 151 143 132
0.0361947 -0.261532   1.29844 159 189 99
-0.673982  0.266731   1.63792 202 198 189
0.117531 0.545549  1.43019 174 167 159
-0.219779  0.211621   1.39067 84 55 41
-0.590268   1.20472 0.0457357 152 145 137
-0.112926  0.364414   1.58103 61 43 39
-0.137098  0.305381   1.21781 113 89 61
0.0390194 -0.061978   1.40883 121 168 122
0.0340235  0.541236   1.40889 100 90 81
0.00831386  -0.134762    1.37846 65 96 54
-0.717362  0.288227   1.61146 214 214 214
   0.13735 0.00128985    1.34076 95 129 79
   0.117023 -0.00304882     1.35551 91 125 75
 0.08343 0.566816  1.38461 190 183 164
0.0372416 -0.255188   1.29617 179 200 144
 0.0969606 -0.0321298    1.39969 100 121 88
 0.135294 0.0269257   1.43467 89 114 75
0.0455117  0.530533   1.43105 200 199 197
0.0612271   0.53938   1.42064 186 186 186
-0.194823  0.348589   1.65976 82 68 65
-0.113101 -0.311424   1.35557 119 168 123
 0.066218 -0.190098  0.977614 112 158 85
-0.185363  -0.23304    1.1957 104 137 56
-0.516104  0.344322   1.57437 182 177 173
0.0871476 -0.228241   1.28472 134 184 115
-0.122852 -0.105723   1.34864 75 61 52
 0.105792 -0.181757   1.02178 81 122 30
-0.588005  0.259637   1.67991 182 175 167
0.0760783 -0.129524   1.28603 107 145 98
-0.196173  0.341056   1.66914 156 152 143
-0.535392  0.330769   1.60998 198 196 197
0.0141762  0.657576   1.20603 211 207 195
  0.170556 0.00809808    1.18246 77 114 63
 -0.3909 0.336892  1.63806 169 166 161
-0.22366 0.323242  1.69225 148 146 133
-0.416685  0.326585   1.65719 178 173 169
-0.401312  0.412628   1.47912 161 151 142
0.0597644 -0.224644   1.07367 159 215 78
0.00557103  0.0565732    1.12261 100 135 93
-0.640486  0.244464    1.6849 212 212 210
-0.822686   1.07725  0.196596 130 125 119
0.0142187 -0.181728   1.07501 107 144 90
0.0583527 -0.153705   1.08538 138 138 126
-0.183042 -0.213345    1.3286 90 120 48
0.0903033  0.542443    1.4319 201 192 175
-0.0286349  -0.139191    1.30525 105 149 72
-0.252241  0.218896   1.36862 33 32 28
0.0418724   0.57526   1.35453 157 154 149
-0.0339595  -0.262349    1.11504 48 66 28
0.0395808 -0.253091   1.29173 203 242 187
0.0141998  0.736097   1.07135 189 180 171
-0.00808752   -0.134373      1.3567 119 163 138
0.0752341 -0.134934   1.29158 85 124 71
0.000553954    0.394462     1.42491 141 107 95
-0.103855  0.959526  0.640751 140 137 128
0.0677206 -0.221054   1.26081 120 184 35
0.0719632 -0.222527   1.22744 111 175 52
-0.581741  0.350608   1.54926 189 185 176
-0.516695    1.2331 0.0223514 205 200 196
-0.569248    0.2792   1.68462 201 198 193
0.0503449  0.492479   1.49843 160 153 143
-0.750069  0.225699   1.68338 210 207 200
-0.0312317   0.718735    1.08118 209 205 194
-0.343797  0.393664   1.56551 141 134 128
-0.309851  0.292498   1.71166 172 168 157
 0.049769 -0.204231  0.960001 167 216 161
-0.388053  0.307959   1.69211 187 182 178
 0.056121 -0.221951   1.27416 108 139 82
 0.0159421 -0.0799609    1.39528 116 161 132
0.0443764 -0.256703   1.30397 165 217 80
-0.0700962  -0.268192    1.20101 125 182 105
-0.0333488  -0.178541    1.45269 116 141 111
-0.420025  0.318674   1.66004 138 135 130
-0.783328  0.297048   1.56349 209 202 194
-0.740425   1.27794 -0.116394 207 200 192
0.0750379 -0.221832   1.23224 112 146 51
-0.620098  0.325199   1.58596 208 206 207
 0.19751 0.661565   1.2626 190 181 172
-0.400299  0.361269   1.58663 126 119 109
0.0923106 -0.063948   1.29436 86 115 85
-0.308771   1.07415  0.373868 125 120 116
-0.395658  0.293323   1.68316 186 185 180
-0.229766  0.193888   1.40874 67 66 62
-0.0955948  -0.106695    1.36775 64 101 58
 0.0561941 -0.0722598     1.3031 76 113 79
0.0583684  -0.22264     1.066 134 202 27
-0.23721  0.31041  1.70932 163 157 145
-0.238816  0.216625     1.376 72 38 26
0.0882295  0.623885   1.28922 210 206 197
 0.0133745 -0.0857917    1.38749 99 144 115
-0.482293  0.326048   1.64007 190 186 183
0.0201751  0.542889   1.40223 109 79 69
-0.34264 0.305778  1.70576 179 172 162
-0.00465032   -0.212877     1.10961 69 111 65
-0.0247874  -0.140597    1.11872 125 173 97
-0.737149  0.230135   1.68663 213 212 210
-0.75144 0.233001   1.6704 189 185 174
   0.02701 -0.0666286    1.38411 101 146 117
-0.602604  0.320933   1.60254 197 192 186
  0.159239 0.00273732    1.20325 79 104 65
0.0422293 -0.244896   1.29035 192 232 182
0.0732017 -0.293308   1.16422 93 120 75
-0.0108866  -0.173111    1.46252 85 114 68
0.0688586 -0.222746    1.2546 116 183 41
-0.677888  0.262106   1.65417 211 211 211
0.0749689 -0.219748   1.24085 86 133 39
  0.153338 0.00510515     1.3291 97 130 83
-0.0661044  -0.262464     1.4042 81 118 64
0.207181 0.671212  1.24959 203 199 190
 0.0194514 -0.0364179    1.18828 87 137 100
-0.456273  0.351375   1.58637 173 170 165
-0.132852   0.85473  0.812861 188 183 161
 0.076263 -0.220678   1.24565 92 157 29
 0.157671 0.0104867   1.32258 82 114 73
0.0671036 -0.220624    1.2563 123 186 43
-0.0588621  -0.205299    1.28426 93 125 62
0.0243312  0.544392   1.40011 195 184 166
-0.463006  0.391662   1.53266 152 144 133
-0.0537889  -0.260403    1.40206 88 134 44
-0.515021  0.331258   1.61992 188 183 179
0.0500222  0.533861   1.42691 171 165 153
-0.482663  0.341116   1.59793 186 182 179
-0.156295   0.74597  0.999075 196 187 170
0.0498547  0.587035   1.33752 188 187 185
-0.0554175    0.76788   0.991123 183 176 160
-0.577528  0.253704   1.73957 212 211 209
-0.614365  0.303941   1.62336 189 184 178
0.105698 0.786277  1.01237 163 155 136
-0.589049  0.346668    1.5946 202 201 199
 0.193315 0.0856051   1.42426 109 141 104
-0.70763 0.318061  1.53972 211 211 211
-0.362288   0.30599   1.69453 180 173 167
0.0560064  0.565465    1.3775 132 125 117
  0.140666 0.00504673    1.33651 101 137 91
  0.155314 0.00255445    1.20324 105 134 86
0.0410451 -0.127369   1.43451 59 86 35
0.0568374  0.493682   1.49734 211 211 211
-0.0553089  -0.259512    1.39057 74 122 48
-0.00759862   -0.140815     1.35886 102 148 119
  0.056672 -0.0195421    1.45482 46 67 36
-0.466651  0.345391   1.61066 177 174 169
-0.0280839  -0.240817    1.17222 97 143 34
-0.0475967   0.823625   0.903141 210 206 197
-0.537211  0.408055   1.46291 204 204 204
 0.182736 0.0863861   1.40722 104 138 113
 0.061646 -0.228766   1.23651 202 238 192
-0.0913388   0.751858    1.00876 183 172 154
0.0700631 0.0806921   1.03502 133 171 112
 0.110524 -0.188008   1.03047 89 131 45
0.0605561 -0.230977   1.24965 170 223 135
  -0.531153      1.2417 -0.00365847 186 174 158
0.162643 0.036791  1.39419 80 109 51
 0.18641 0.671853  1.24553 192 186 172
-0.129683 -0.109948   1.35898 99 109 85
-0.115194 -0.335585   1.36292 147 190 163
 0.070826 -0.218352   1.24938 89 151 18
-0.0138163  -0.223392    1.10569 94 140 78
 0.067139 0.0463557   1.51493 65 95 45
-0.0891806  -0.323796    1.28935 94 139 106
-0.360645  0.405636   1.53452 118 113 107
0.0603656 -0.229559   1.24139 161 196 142
0.0228881 0.0104979   1.48742 95 55 43
-0.163123  0.753874  0.981113 192 179 163
-0.757155  0.275255   1.60639 212 208 205
-0.646139   1.25042 -0.057266 188 179 164
-0.571995  0.267124    1.7087 206 203 198
0.0550301  0.500021   1.48627 116 112 103
-0.115576 -0.320062   1.34108 93 143 90
0.0560318  0.545239   1.41008 211 211 211
-0.00884831    -0.14613     1.37947 108 152 125
-0.592301  0.341623   1.54903 194 189 183
  0.15836 0.0355177   1.39593 71 99 51
0.0170608  0.779706  0.996951 151 145 131
  0.11427 -0.184634   1.02382 122 174 74
-0.0124993  -0.152889    1.38743 134 185 144
   -0.807782      1.16899 -4.00024e-05 161 154 138
 0.0228743 -0.0713849    1.39684 116 160 133
0.0472666  0.596911   1.31862 112 102 93
-0.33508  1.07705 0.357472 162 154 141
0.042145 0.521603  1.44607 160 158 159
0.0404942  0.528392   1.43273 199 194 190
0.194827 0.650828  1.27626 204 199 195
-0.274968  0.321046   1.67721 179 172 164
-0.184255  0.339095   1.67975 170 168 156
0.0254173  0.546885   1.39701 146 139 129
-0.0701443   0.711298    1.08022 200 191 176
-0.627085  0.245973    1.6969 197 194 189
-0.24403 0.825148  0.82632 217 213 204
-0.0530371  -0.253314    1.37962 100 151 76
-0.458271  0.333548   1.63278 163 159 150
-0.311627   1.07373  0.377881 192 185 177
0.0381647  0.592126   1.32482 196 184 168
0.0584057  0.624331   1.27961 175 165 155
-0.468909  0.408329     1.488 171 164 156
-0.210852  0.325001   1.69982 184 184 174
-0.428484  0.311666   1.67859 149 144 138
-0.174745   1.04218  0.468811 209 206 197
-0.591168  0.372579   1.50839 197 193 184
0.0431432  0.502048   1.47944 172 171 167
0.0320806  0.567075   1.36539 157 156 154
-0.0552903  -0.254637    1.37543 100 151 72
-0.520081  0.382067   1.50569 189 184 178
 0.0350274 -0.0547621    1.37613 83 127 100
0.160948 0.614708  1.32006 193 182 160
-0.41136  0.34759  1.58742 133 126 116
-0.610124  0.307364    1.6037 207 205 206
0.0323758  0.482989   1.43218 190 108 96
-0.469936  0.293085    1.6816 197 196 194
0.204938 0.616071  1.33641 214 213 211
 0.10308 0.690258  1.17851 138 130 117
0.0417491  0.542922   1.40891 197 195 196
-0.403093  0.325712   1.66469 179 176 171
-0.485014  0.279445   1.69344 197 196 192
-0.471235  0.331121   1.63918 176 171 165
-0.736309  0.220532   1.69536 214 211 206
-0.345357  0.396863   1.53286 130 125 121
0.0403238   0.51823   1.44933 176 174 175
0.0799779   0.54244    1.4216 194 192 193
0.0221411  0.538441   1.40828 171 160 142
-0.0443159   0.821311   0.905517 217 213 212
-0.113148  0.950303  0.648617 213 210 205
-0.0151577   0.904765   0.761971 224 217 207
0.154099 0.601249  1.34734 217 210 202
 0.0595584 -0.0150336    1.45943 58 80 44
0.0240157  0.868789  0.836482 216 211 205
0.0527153  0.535479   1.42291 143 131 119
-0.30598 0.293381  1.71399 189 185 176
-0.479797  0.286638   1.69942 189 184 178
-0.580025  0.326373   1.57324 206 204 205
-0.34305 0.384251   1.5624 126 119 113
-0.40892 0.294279  1.71896 190 186 177
-0.329899  0.300641   1.70624 188 188 188
-0.312848   1.04276  0.423648 204 200 197
0.0112776   0.03921   1.58958 101 129 55
-0.149467 -0.158097   1.38461 108 138 52
-0.846067  0.264533   1.59553 207 203 202
 0.133727 0.0883258   1.43374 47 67 39
-0.727587  0.235189   1.67898 212 211 206
 -0.517425    1.25523 -0.0114592 189 181 168
 -0.6258 0.321153  1.59131 193 188 184
 0.19557 0.609726  1.33081 194 182 158
 -0.75528   1.40446 -0.375377 161 149 133
-0.304101   1.09685  0.341185 106 106 98
-0.277703  0.320523   1.68799 179 179 177
-0.699608  0.216387   1.71426 214 213 211
0.0328239  0.584756   1.33599 113 102 84
 0.129876 0.0329298   1.43032 65 93 55
 0.157165 0.0282147   1.40662 101 146 89
-0.62639 0.251414  1.71581 215 213 214
0.163608 0.693417  1.19041 211 210 208
-0.36947 0.328818  1.66305 176 171 167
0.0830586  0.552217   1.40559 171 167 156
0.0460628    0.5185   1.45142 198 198 196
0.0559718   0.52293   1.44606 207 203 200
-0.725917  0.319088   1.53633 196 196 194
-0.912399  0.273664    1.5627 233 232 230
-0.023815  0.331356    1.5157 89 54 48
0.074295 0.526578  1.44675 196 185 163
-0.763378   1.26703 -0.168206 183 170 153
-0.683296   1.39378 -0.332171 152 153 148
-0.507622   0.35331   1.57692 184 183 181
-0.692292  0.302778    1.5786 198 196 197
0.155232 0.612546  1.32507 199 195 183
-0.164052  0.963416  0.612117 201 194 178
0.176517 0.073269  1.30369 88 118 80
0.0249182  0.570545   1.35878 172 169 162
-0.467408  0.259732   1.72235 197 196 192
-0.378687  0.401367   1.52982 128 123 117
-0.499059  0.392705   1.50395 193 188 184
0.0757415  0.638068   1.25678 209 208 204
0.192535 0.627107  1.31425 212 212 212
0.114917 0.617476   1.3035 197 189 166
-0.401511  0.291207   1.68795 174 171 162
-0.0240964   0.406107    1.53195 118 102 112
-0.159183  0.854414  0.800867 220 217 210
 0.145741 0.0817441   1.45549 82 106 84
0.0448835  0.548933   1.39599 205 198 190
-0.748881   1.43945 -0.477702 109 109 111
-0.436648  0.303235   1.70807 186 182 173
  0.182014 0.00487838    1.17511 57 80 34
0.0694924  0.619446   1.28532 200 194 178
-0.683367  0.298655   1.60325 200 197 188
-0.413096  0.272534    1.7385 181 176 170
-0.150511  0.390138   1.64989 100 50 39
-0.0648427   0.721189    1.07115 213 209 200
0.136711 0.574984  1.37196 201 195 181
-0.035186  0.726896   1.06864 223 223 223
-0.495197  0.368674   1.56468 150 146 135
-0.172156  0.763507  0.957278 217 213 204
0.0959164  0.753181   1.07439 153 147 133
 0.185028 0.0766276   1.42142 104 141 98
-0.699526   0.33084   1.51976 214 214 214
-0.686977   1.07934  0.227568 216 212 209
 0.159992 0.0298903   1.40293 78 108 58
-0.468187  0.340136   1.60242 168 163 157
-0.595267  0.321807   1.59227 209 208 206
0.152507 0.635174  1.30002 199 195 183
0.014505  0.49515  1.40687 184 95 81
0.0631941  0.684957   1.18286 124 122 110
 0.093364 0.0299911   1.41019 64 88 62
-0.0302399   0.724448    1.07586 211 204 194
-0.277825  0.295226   1.72749 189 185 176
0.0877592  0.760734   1.05859 158 150 139
-0.398864  0.338617   1.64534 172 168 165
 0.113063 0.0739216   1.43813 66 92 65
-0.839456  0.253153   1.60558 225 224 222
 -0.765836    1.20764 -0.0145365 131 132 127
-0.406064   0.29737   1.67459 178 175 166
0.0817504  0.634983   1.26613 197 191 177
  -0.810105     1.16628 -0.00819476 215 211 200
0.0500968  0.506765   1.47025 190 183 167
-0.122233  0.331401   1.62749 141 80 79
0.0852416  0.675563   1.19964 182 172 162
0.0736127  0.551624   1.40256 157 153 144
-0.459139  0.395555   1.50563 183 178 172
-0.854699   0.24556   1.62537 231 231 231
-0.709736  0.315733   1.57028 214 214 214
0.0436968  0.499412   1.48492 176 173 168
0.147496 0.598787  1.32602 201 195 183
-0.102673  0.314311    1.5475 91 58 49
0.120255 0.617173  1.30073 204 200 189
-0.708793  0.345243    1.5457 216 214 215
-0.676098  0.285601   1.61481 212 212 212
-0.755586  0.228918   1.67353 210 207 200
-0.548855  0.239482   1.72417 207 206 204
-0.454783  0.320896   1.67179 166 157 148
-0.0295486   0.788164   0.967986 206 200 188
-0.579691  0.246816   1.75937 202 199 194
-0.262254  0.309512   1.70654 173 169 160
-0.715803  0.262509   1.68573 199 198 196
 0.223073 0.0541099   1.30304 119 150 83
0.0203995  0.569401   1.34842 129 124 118
-0.229745   1.01663  0.482897 212 211 207
-0.104389  0.330423   1.55007 84 49 43
  0.13597 0.0839989   1.44879 69 93 67
0.0569745  0.540798   1.41577 205 205 205
-0.709046  0.223683   1.69947 213 212 210
-0.762019   0.27419   1.61025 211 208 201
-0.037537  0.722805     1.074 211 205 191
0.175529 0.643096  1.28717 194 190 178
-0.457845  0.405056   1.50487 162 155 145
-0.722535  0.262022   1.62496 215 215 215
-0.104293  0.853339   0.81935 220 217 208
-0.48583 0.376357   1.4924 183 178 172
-0.0593457  -0.252628    1.37177 87 128 70
-0.529198   0.22687   1.76705 211 210 208
0.0304306  0.544008   1.40321 163 162 160
-0.577705  0.278419   1.64802 206 205 203
 0.22697 0.613422  1.33826 185 173 147
-0.678561  0.315346   1.58393 212 210 211
0.0864324  0.782974   1.04062 162 157 138
-0.344988  0.399487   1.53792 118 111 103
-0.159439  0.755348  0.977833 165 161 149
-0.566373  0.373963   1.51661 202 201 197
-0.302811  0.308023   1.69301 186 181 175
-0.0314142   0.723764    1.08014 210 203 195
0.122102 0.743103  1.09935 198 192 178
0.0334176  0.863948  0.821375 209 207 195
-0.700809   0.22665   1.70006 207 206 202
0.0195042  0.547522   1.39503 193 188 184
0.129262 0.756447  1.08462 200 194 178
-0.0436412   0.761603    1.00439 195 188 170
-0.510959  0.375096   1.53369 165 161 150
0.0949317  0.624401   1.22033 201 195 181
-0.132105   0.81365  0.879787 217 213 201
0.0249517  0.140755   1.43858 87 59 47
-0.661756  0.270244   1.67384 216 214 215
0.151584 0.723376  1.11643 200 194 182
 0.13197 0.597233  1.33629 206 202 193
-0.43941 0.384042   1.5578 131 127 118
-0.691051   1.27764 -0.112432 194 185 168
-0.569964  0.346988   1.55918 199 198 196
-0.279349   1.08766  0.364963 118 113 107
-0.908645  0.312739   1.51403 232 230 231
-0.507857    1.1437  0.164168 213 212 208
-0.533766  0.326543   1.61526 184 179 173
0.0460204  0.535077   1.42323 201 197 188
-0.269721  0.333693   1.67271 153 147 135
 0.0598692 -0.0101872     1.4619 51 69 43
-0.538514  0.318119   1.62951 195 194 190
0.0895269  0.705745   1.14945 205 201 189
0.0635059  0.520353   1.45538 202 189 170
0.193453 0.675387  1.23187 195 188 180
-0.563597  0.330461   1.60461 189 184 178
-0.369354  0.301071   1.70522 179 174 168
-0.481801  0.256831   1.74278 207 204 199
0.0279997  0.890911  0.812156 181 174 166
-0.0259369   0.704515    1.11177 213 209 200
0.121781 0.538681  1.44141 179 176 161
0.120481 0.628718  1.28821 210 210 210
0.0698573  0.614281    1.2995 202 197 178
-0.618173  0.421344   1.46927 207 206 204
 0.131683 0.0870735   1.44486 70 94 68
0.102383 0.586148  1.37905 198 195 180
-0.548061  0.295928   1.65322 191 186 180
-0.588905  0.317122   1.61672 201 197 194
-0.508887  0.311175   1.63858 191 188 183
 -0.3626 0.397643  1.56273 139 134 130
0.0343984  0.513658   1.45294 196 188 169
-0.74798 0.237338  1.66482 212 208 205
-0.717427  0.289147   1.62746 213 213 213
-0.568776  0.247659   1.75671 210 209 205
-0.484033  0.399559   1.52644 158 151 141
-0.529591   0.35025    1.5794 183 179 170
-0.810055   1.31607  -0.24009 162 159 152
-0.533404  0.245401   1.71329 207 204 199
0.0920741   0.69959   1.16126 185 179 167
-0.453927  0.372446   1.53973 163 159 150
0.158662 0.647418  1.27383 195 185 175
-0.476615  0.392584   1.49657 191 188 183
0.0686035  0.710452   1.13565 149 146 137
-0.477658  0.406443   1.48961 184 179 173
-0.347641  0.334318   1.63539 158 157 155
-0.468355  0.392994   1.50928 171 166 160
 -0.5896 0.250115  1.73549 213 212 210
0.129786  0.69569  1.18129 197 195 183
-0.406249  0.339886   1.64184 164 157 149
-0.640758  0.264813   1.69993 211 210 208
-0.604635  0.257008   1.71053 212 211 209
-0.325704  0.300887   1.70283 171 164 154
0.0875464    0.7731   1.03707 186 181 162
-0.647269  0.375327   1.47479 206 205 201
-0.378875  0.334355   1.65421 172 167 163
-0.516159  0.283883   1.69507 202 199 194
-0.635871  0.325815   1.56917 200 199 195
0.198485 0.596197  1.37115 177 164 155
-0.618633  0.299823   1.62792 207 203 200
0.160782 0.594147  1.35299 198 195 180
0.0523674  0.536934   1.42182 210 202 189
-0.636948  0.307851   1.62454 197 192 186
0.0567166  0.535526   1.42594 153 145 134
0.0141722  0.761055   1.02778 212 208 199
-0.383208  0.353579   1.61493 158 151 145
0.195338 0.634095  1.28593 199 193 179
0.133485 0.653356  1.26434 206 203 194
-0.746471  0.255652   1.64419 212 211 209
0.158845 0.634101  1.29154 184 174 164
0.0433827  0.628885   1.26956 139 132 113
-0.533254   0.32263   1.59894 196 193 188
-0.727127   1.17547 0.0493473 220 217 212
0.0487164  0.573392   1.35995 169 168 166
-0.270477  0.316048   1.68297 174 170 161
-0.571811  0.407214   1.46751 208 207 205
0.142911 0.608613  1.31036 199 195 183
-0.55133 0.335068  1.57909 189 186 179
0.147804  0.68254  1.20739 207 204 197
0.084678 0.773693  1.04742 200 194 178
-0.474719  0.313203   1.62586 183 180 175
-0.758576  0.264959   1.60902 186 179 169
0.036516 0.444808  1.51076 183 104 100
-0.732239  0.287626   1.62629 206 205 203
 -0.736393    1.19569 0.00483217 176 168 155
-0.590411  0.415644   1.45151 213 211 212
0.0674241  0.581657   1.35268 196 196 194
 -0.4636 0.361021  1.54067 168 165 156
-0.515196  0.386566   1.51038 193 190 181
 0.0641527 -0.0227819    1.44941 45 64 34
0.0351586  0.154742   1.42204 122 90 79
-0.389082  0.351657   1.60444 155 148 140
   -0.679918      1.20772 -0.000619267 214 213 209
-0.567247  0.369981   1.50981 195 192 183
-0.664515  0.229236   1.70545 214 213 211
-0.582583  0.330639    1.5866 199 198 194
0.0443196 0.0265933   1.52069 55 72 38
0.0545988   0.03016   1.51867 83 119 47
-0.183783  0.349677   1.65741 131 124 118
-0.0577416  -0.261084    1.39116 82 127 58
0.0437365  0.734333   1.08539 216 213 208
-0.658228  0.311225   1.59239 210 209 207
-0.557559   0.34772   1.56424 195 191 188
-0.490292  0.386974   1.51453 181 176 170
-0.546154  0.388319    1.4846 198 195 190
0.0859844  0.530516   1.41267 192 186 172
-0.53539 0.277729  1.71784 191 187 178
-0.615086  0.248952    1.7346 205 202 197
0.0836858  0.603181   1.31983 210 206 195
0.0738457  0.802406  0.969616 219 214 208
0.179387 0.674976  1.22789 197 190 180
-0.054317 -0.255487   1.38113 82 128 63
-0.54676 0.402255  1.47165 205 203 204
0.0607534  0.577158   1.35867 198 191 175
-0.746279  0.292638   1.61874 216 216 216
-0.520242  0.367906   1.52022 189 182 172
-0.578088  0.252435   1.72104 207 206 202
-0.378549   0.29937   1.69953 173 166 160
-0.30413 0.312473  1.68708 183 176 166
-0.518807  0.343419   1.58876 191 187 184
 -0.646213    1.23577 -0.0755067 163 151 137
-0.538634  0.290105   1.67601 200 197 192
-0.275951  0.346596   1.67083 168 161 151
-0.593334  0.258421   1.72763 207 205 206
-0.482809  0.387969   1.51948 177 172 166
-0.985558   0.36829   1.36576 227 227 227
0.0565923  0.042572   1.48406 64 93 37
-0.605656   0.34026   1.55511 198 193 187
-0.649513  0.315053   1.60801 205 202 197
-0.0640177  -0.262477      1.385 75 120 55
-0.537279  0.315767   1.60291 196 192 189
-0.0241827 -0.0277362    1.47723 51 67 41
-0.608834  0.292439   1.64469 206 205 203
-0.724361  0.316881    1.5293 214 214 214
-0.528389  0.415668   1.46113 195 192 187
-0.49012 0.301099  1.69757 191 188 183
-0.295789  0.296201   1.71626 179 172 162
-0.699824  0.380125   1.45877 216 216 216
-0.627491  0.291982   1.63769 202 199 194
-0.643029  0.330092   1.58933 207 206 204
-0.647312  0.249782   1.69933 215 213 214
-0.355891  0.290961   1.69877 184 180 169
-0.440054  0.297606   1.72559 184 177 169
-0.339701  0.328723   1.68699 171 164 156
-0.656561  0.278824   1.66134 213 212 210
-0.538933  0.329402   1.60654 189 186 179
-0.651925  0.326528   1.56431 210 210 210
-0.550789   0.27272   1.68949 196 191 185
-0.642652  0.286296   1.63062 205 204 200
-0.527809  0.278696   1.69279 199 196 191
-0.663067  0.275324   1.65928 206 203 198
-0.975447  0.391441   1.32677 220 220 220
-0.631622  0.288522   1.62676 208 207 205
-0.455231  0.335243     1.606 178 175 168
-0.618591   0.25308   1.72119 212 210 211
-0.536703  0.299545    1.6714 192 187 181
-0.63115 0.335671  1.56796 204 203 201
-0.545933  0.232654   1.77994 214 213 211
-0.639484  0.293692   1.63619 210 209 207
-0.689032  0.312449   1.58867 211 209 210
0.0597721 -0.126929   1.27248 90 129 82
-0.450666  0.545635   1.24587 90 90 90
 0.40913 0.674785  1.21718 134 134 132
 0.648478 -0.172791   2.66257 132 122 110
 0.854358 0.0522337   1.82199 123 106 86
0.397156 0.575417   1.4749 133 132 128
-0.731196  0.374837    1.4402 201 201 203
 0.882692 -0.272999   1.89058 150 135 114
0.0429462  0.629646   1.26374 170 169 164
0.749395 0.190607  2.07824 104 95 80
 0.649529 -0.059836   2.45015 100 87 71
-0.743793  0.399102   1.39615 204 204 204
0.0964101 -0.467591   3.17162 150 140 131
0.0777721  0.753892   1.07789 234 237 242
-0.323792   0.55336   1.26838 190 190 190
-0.755302  0.366821   1.44788 185 185 173
0.0429491 -0.144775   2.64417 181 174 166
-0.267314 -0.571926   3.17864 169 160 145
   0.510197 -0.00395242     2.48209 102 88 77
0.179717 0.721554  1.10417 220 221 223
  0.71402 -0.258958     2.428 107 104 95
0.685622 0.380511  1.91627 92 80 68
0.713487 0.398195  1.87918 54 47 41
 -0.346366 -0.0117929    2.24676 221 221 221
0.00890572   0.650748    1.20782 194 195 197
0.550244  -0.2013  2.85784 79 69 60
0.250533 0.721888  1.12467 223 226 231
 0.800143 -0.289892   2.10621 135 119 103
 0.724798 -0.345913   2.40547 110 110 98
 0.18782 -0.35305  3.01094 118 109 102
0.623131 0.347328  1.94717 69 60 53
-0.71743 0.342458  1.50207 202 202 202
 0.827507 -0.310667   2.06172 163 150 134
 0.118255 -0.517482   3.24888 78 71 63
  0.873601 -0.0756541     1.8076 110 104 92
-0.765363  0.296026   1.56548 195 195 195
-0.0775897  -0.378308    2.95656 163 156 146
0.083341 0.658735   1.2219 222 222 224
 0.776983 -0.221475   2.20704 110 110 108
 0.861663 -0.193671   1.80552 127 126 122
0.0695832  0.573932   1.20038 227 227 229
-0.137722   0.67072   1.13002 219 219 221
-0.197513 -0.188944   2.60219 206 206 204
  -0.329201 7.48136e-05     2.23046 213 213 213
 0.164649 -0.328518    2.9584 84 77 69
0.855351 0.232809  1.78347 95 85 73
-0.349424 -0.466683   3.02795 166 153 145
 0.850239 0.0992191   1.84655 100 97 88
 0.125287 -0.437956   3.13927 100 87 79
-0.302748  0.612773   1.17643 209 210 205
0.706413 0.503298  1.67678 95 83 71
 0.652743 -0.167862   2.61081 137 129 116
-0.208091 -0.101942   1.99255 114 135 92
-0.178579 -0.189194   2.59745 201 197 194
-0.407524  0.408514   1.48822 114 110 107
0.0854837  0.710063   1.12444 217 217 217
 0.839479 -0.264646   1.94948 121 118 111
-0.344922 -0.342476   2.80849 201 197 188
-0.090704 -0.355701   2.92777 177 168 161
 0.783083 -0.274639   2.15255 141 128 112
-0.663738  0.419135   1.38373 183 183 183
-0.662883  0.417296   1.38283 187 187 187
 0.563824 -0.232184   2.90101 114 105 96
-0.00148168     -0.3782     2.99048 144 134 125
0.852128   0.2512  1.80258 120 108 94
 0.12456 0.015805  2.37163 104 105 100
-0.528342 0.0306323   2.11179 213 212 210
 0.148594 -0.306182   2.91684 108 97 91
 0.013465 -0.363989   2.98322 150 141 136
0.790382 0.151476  2.01297 118 105 89
-0.154495  0.657829   1.14584 212 212 212
 0.180779 -0.393976   3.08372 134 120 109
 0.834016 0.0363435   1.92214 121 111 101
  -0.1064 -0.445982   3.07143 106 104 92
 0.795388 -0.360373   2.11333 164 148 133
0.0617896 -0.192684   2.69336 152 149 142
0.084555  -0.4146  3.09145 158 147 143
-0.00288074   -0.326303     2.90355 161 152 147
 0.702647 -0.133547   2.40095 141 129 113
-0.0615337  -0.403211    2.98667 131 108 90
0.469173  0.65003     1.36 186 184 185
 -0.15571 -0.447361   3.06815 135 124 118
 0.849828 -0.148812   1.83928 157 144 127
-0.141728  0.663773   1.13615 208 208 210
0.127207 0.644949  1.26903 238 241 246
 0.849288 0.0134612   1.86807 130 114 98
  0.79383 -0.283849    2.1265 151 147 136
-0.297405 -0.450248   3.00431 160 147 139
 0.770418 -0.198822   2.20356 140 127 111
0.0101959 -0.346109   2.94994 152 141 137
0.0695342  0.672666   1.19651 211 211 211
-0.00578293   -0.342415     2.93151 154 143 137
 0.154748 0.0177288   2.36103 172 163 154
 0.675005 -0.249596   2.54729 125 117 106
-0.584964 0.0565293   2.05239 235 236 238
0.0886238 -0.395545    3.0558 123 113 103
0.0631191 -0.273196   2.83388 130 123 117
 0.792287 0.0962083   2.03212 117 100 82
 0.817719 -0.208024   2.01591 132 132 130
  0.80083 -0.281168   2.11058 134 124 114
-0.208479 -0.618646   3.29335 144 126 112
-0.0770915  -0.185303    2.62569 195 194 190
-0.326866 -0.403896   2.92476 187 170 150
  0.747128 -0.0535631    2.25981 145 141 130
 0.865219 -0.299144   1.85642 145 136 119
0.0778491 -0.251994   2.80004 129 118 112
  0.129149 -0.0194796    2.42456 176 174 175
0.683361 0.389175  1.90039 77 56 35
 0.372463 -0.261991    2.9243 89 80 75
  0.71363 -0.156256   2.34044 138 125 108
0.00961627   0.625256    1.25342 218 218 218
  0.479452 0.00303893    2.47586 88 85 80
0.108067 0.692777  1.15715 214 214 214
 -0.487426 -0.0828777    2.32275 210 210 210
 0.132313 -0.265221   2.84348 156 151 145
 0.188394 -0.176223   2.71694 148 143 137
0.831388 0.193699  1.87089 110 97 81
0.0945836 -0.175284   2.66115 151 148 143
-0.145508 -0.370782   2.93734 180 172 169
-0.0671943   0.686761    1.12461 225 225 225
0.0334017 -0.287169   2.83621 142 133 124
0.132316 0.700259  1.14977 223 224 226
 0.825043 -0.297528   1.88302 139 122 104
  0.75616 -0.246146   2.27537 154 143 125
-0.0388777  -0.461942    3.12708 161 152 145
0.0649189 -0.334953   2.93866 136 125 119
 0.516817 0.0386593   2.45562 99 90 81
0.0134739 -0.341172   2.93436 112 107 104
0.048741 -0.32827  2.92615 127 118 113
0.838836 0.168661  1.83888 116 103 86
 0.159433 0.0183774    2.3835 107 109 104
 0.664113 -0.262119   2.60226 137 129 118
0.0797021 -0.433451    3.1182 138 128 119
-0.101265 -0.368471   2.94254 169 162 152
0.759047 0.174602  2.12153 98 88 76
 0.225289 -0.467479   3.18683 78 77 75
 0.650146 0.0303673    2.4741 73 72 68
-0.0067682  -0.410624    3.05638 124 114 112
  0.834821 -0.0806186    1.91184 131 115 99
-0.272663 -0.517335   3.15037 164 154 144
-0.68378  0.29262  1.60198 203 203 203
-0.389301  0.570493   1.20266 235 235 237
0.0126218 -0.540861    3.2785 113 104 99
0.670626 0.220077  2.16655 90 80 70
 -0.508499 -0.0426499    2.25133 221 221 221
0.702548 0.185368  2.19368 81 69 57
0.143587 0.630899  1.28954 226 230 233
 0.794831 -0.234389   2.08891 161 149 133
 0.341286 -0.338574     3.022 79 75 66
0.0371221 -0.315488   2.89994 133 126 120
-0.322061 -0.470151   3.04306 171 161 151
-0.148352  0.667606   1.13471 238 242 245
0.0271222  -0.29893   2.87161 162 153 146
-0.768309  0.358588   1.46018 193 193 191
-0.0359615  -0.331221    2.89943 148 141 133
 0.779414 -0.212308   2.15361 126 116 104
 0.15985 0.697975  1.19368 228 232 235
-0.118066 -0.585039   3.31244 131 122 113
-0.0279886   -0.35545    2.94193 152 144 133
-0.408961  0.413186   1.47983 145 142 137
  0.110383 -0.0942496    2.52156 176 167 160
 0.630747 -0.357888   2.70834 129 117 101
-0.376332  0.572462   1.21214 212 212 214
-0.570386 0.0106562    2.1343 210 210 210
 0.334084 -0.354508   3.05909 99 90 83
  0.76864 -0.280198   2.20656 145 132 116
-0.402954  0.522665   1.28997 190 182 179
0.205058 0.727282  1.15924 216 216 216
-0.0588874  -0.406545    3.02515 163 152 148
  0.821309 -0.0871907    1.99102 121 118 111
-0.576653 0.0346472   2.08798 232 233 235
-0.484496  0.553263   1.20402 204 204 204
 0.599791 -0.310019   2.82635 111 103 92
-0.527163  0.362514   1.53089 153 153 153
  0.85503 0.0101784   1.85811 134 122 108
-0.409105 0.0648185   2.09317 223 223 223
-0.374244  0.540898   1.26764 156 156 156
0.0245519 -0.334559   2.93134 132 127 121
 0.124051 -0.446559   3.15148 146 136 127
0.0081254  -0.36469   2.97897 153 142 136
-0.360102 0.0614579   2.10992 225 225 225
 0.155689 0.0250249   2.34877 172 169 162
-0.225608 -0.222384   2.64564 212 212 212
0.0756459 -0.236347   2.77497 159 150 141
0.0595381 -0.328158   2.93397 151 140 134
0.0107429 -0.376003   2.99854 134 123 117
-0.778067  0.371702   1.43483 207 207 207
0.792687 0.399096  1.89814 54 50 41
 0.812717 -0.116104   1.97245 117 101 86
-0.0187701  -0.314088    2.87929 176 167 158
0.0754226 -0.138052     2.605 178 175 168
-0.578263    0.5158   1.23808 226 227 229
0.0899943 -0.140804   2.61205 173 166 158
-0.598271  0.142258   1.89215 208 208 208
0.118688 -0.50705  3.24756 115 106 107
0.0243219 0.0119674   2.32694 196 196 194
-0.111615   -0.3151   2.85091 195 194 192
-0.0213098  -0.417151    3.06048 147 140 132
-0.561559  0.513869   1.26113 219 219 221
-0.183845 -0.426207   3.02146 185 177 174
0.0343009  0.622486   1.27857 200 200 200
-0.742512  0.258268   1.64838 195 195 195
 0.753842 -0.359728   2.27571 160 147 130
-0.608222  0.444175   1.35923 190 188 191
  0.759772 -0.0784581    2.17189 110 97 81
0.728988  0.24822  2.05044 59 49 40
-0.335174  0.537298   1.29196 168 164 155
0.808771 0.142249  1.95114 112 99 82
-0.689811  0.137101   1.86461 216 216 216
 0.723943 -0.104392   2.34991 117 110 104
0.822513 0.199259  1.88337 92 80 64
-0.139398  0.660629   1.14118 239 243 244
0.832042 -0.19587  1.97055 139 131 120
 0.235797 0.0336374   2.36391 151 142 133
-0.0219696  -0.299046    2.84547 184 179 175
-0.146145  0.658992   1.14576 238 242 245
-0.659165  0.269341   1.65096 195 195 195
0.166962 0.712402  1.14312 223 225 224
 0.826791 -0.371131   1.98655 147 134 118
-0.664793   0.42019   1.39633 205 205 205
-0.629435  0.248155    1.6943 196 196 196
-0.632051    0.2533   1.69966 195 195 193
0.794673 0.242627  2.00388 91 81 72
  0.528186 -0.0672537    2.54618 85 73 59
0.337348 -0.32658  3.01336 117 107 97
0.701065 0.199614   2.1829 51 47 38
0.831229 0.139271  1.86247 116 101 82
 0.809709 -0.364097   2.06889 142 130 118
 0.787799 -0.295979   2.15443 152 144 131
 0.349101 -0.339282    3.0206 110 100 91
-0.664634  0.387568   1.44261 185 185 185
 0.353006 -0.347069   3.04547 89 79 70
-0.0791619  -0.359374    2.92524 149 140 131
0.815915 0.272237  1.93671 110 98 86
-0.469775 -0.046493   2.26868 227 227 227
-0.502244  0.350895   1.55442 144 144 144
  0.767828 -0.0402129    2.14894 146 132 119
0.786385  0.11489  2.03467 103 87 71
0.675176 0.108602  2.36589 72 59 50
0.0917845 -0.478939   3.20409 152 142 133
 0.836055 -0.186813   1.92439 155 146 131
  0.704741 -0.0575289    2.39442 117 109 98
-0.43829 0.507419   1.3047 188 184 185
 0.244748 -0.334207   2.97026 109 99 90
-0.764262  0.436442   1.33059 226 226 226
-0.787749   0.29805   1.56781 201 201 201
 0.106652 -0.101066   2.54055 173 164 157
 0.853186 -0.127809    1.8594 123 119 110
-0.282582 -0.103865   2.42871 219 219 219
-0.201686 -0.389399   2.94443 195 188 182
 0.161389 -0.263921   2.86381 145 136 129
 0.840866 -0.175303   1.90773 155 147 128
-0.474311 -0.104696   2.35397 222 222 222
 0.374677 0.0830243   2.32198 149 140 133
0.828647 0.119513  1.93073 121 108 91
  0.397395 -0.0157689    2.53896 113 103 94
 -0.505868 -0.0877531    2.32295 231 231 231
 0.774308 0.0901167   2.08579 121 109 95
-0.274074 -0.313043   2.79787 207 205 206
-0.320669 -0.415229   2.95025 199 194 190
 0.10198 0.641181  1.25911 223 224 226
-0.616431  0.434035   1.38502 213 213 213
 0.317741 -0.413088   3.12984 111 105 93
-0.467747  0.561609   1.19368 215 215 215
-0.234646  -0.44526   3.03108 184 179 175
 0.752359 -0.172653   2.21282 121 105 89
-0.490423 0.0403228   2.10724 226 226 226
-0.250934 -0.438775   3.02394 186 176 167
0.716109 0.420983   1.8203 86 72 59
0.193487 0.695366  1.19797 214 214 216
 0.843932 -0.271592    1.9279 149 137 123
0.835127 0.167442  1.91025 108 96 80
-0.829242    0.3779   1.41323 210 210 210
 -0.491108 -0.0723984    2.30631 230 230 230
  0.22204 -0.480363   3.19875 118 109 94
0.820968 0.162612  1.92975 104 96 83
-0.504917 0.0210192   2.14041 227 227 227
-0.438341    0.5062   1.29837 220 220 220
-0.154122 -0.500802   3.13515 138 128 118
-0.675005  0.413553   1.38797 209 209 209
-0.59249 0.265685  1.68057 186 186 186
-0.753449  0.253475   1.64679 187 186 184
-0.599477 0.0822963   1.98658 225 225 225
  0.657088 -0.0314168    2.54198 108 101 93
-0.461673  0.246865   1.75188 192 196 199
 -0.31969 -0.080934   2.37929 223 223 223
-0.300879 -0.513295    3.1199 170 160 148
0.831089 0.149241  1.90869 109 99 87
0.787609 0.231123  2.02033 94 86 75
 0.816742 -0.177997   1.98077 154 142 128
 -0.22253 -0.638632   3.32439 142 136 124
-0.286971 -0.292672   2.74684 199 195 192
-0.624872   0.43608   1.35136 212 212 212
 -0.341353 -0.0839722    2.37419 221 221 221
  0.78924 0.0252738   2.04223 118 103 84
 -0.56899 0.0449267   2.08378 228 228 228
-0.651937  0.204552    1.7605 214 214 214
  0.780642 -0.0255754    1.86242 118 103 84
-0.813772  0.381249   1.40765 223 223 223
 0.706317 -0.213572   2.41352 147 134 117
0.451076 0.724237   1.2437 193 194 196
-0.601615  0.479461   1.27476 225 226 228
 -0.45117 0.0734968   2.06207 223 223 223
 0.681355 -0.230656   2.52435 124 115 106
-0.0852591  -0.307354    2.84008 189 181 178
-0.146201 -0.444757    3.0568 163 155 144
-0.316279  0.109447   2.04456 212 210 211
-0.653452  0.217916   1.74291 213 213 213
0.835264 0.227832  1.83245 98 89 72
0.299118 0.683472  1.25394 218 219 223
-0.0101137  -0.305829    2.86796 162 157 154
 -0.17436 -0.506477   3.14685 159 150 141
0.712182 0.354837  1.96117 72 62 53
-0.670266  0.228476   1.71886 222 222 224
 0.371369 -0.441701   3.16729 95 91 88
-0.140855 -0.479584   3.12501 156 147 138
0.839361 -0.29156  1.94308 161 149 133
 -0.304448 -0.0990338    2.41659 224 224 224
0.0927387 -0.170897   2.65369 172 164 153
-0.687006  0.242143   1.67869 200 200 200
 0.585376 -0.276954    2.9561 122 109 93
0.655067 0.108194  2.35791 71 64 58
 0.259509 -0.491361   3.21067 113 113 105
-0.243305 -0.519567   3.16518 147 137 125
0.590044 0.432953  1.78602 120 110 101
-0.249964 -0.502419   3.10159 148 138 126
-0.725538  0.242971    1.6795 208 208 208
-0.060377 -0.343331   2.91286 164 155 150
0.227524 0.131578  2.17301 180 179 177
0.20561 0.69734 1.20142 227 228 232
0.850452 0.311546  1.78033 104 92 80
 0.720513 0.0881455   2.30056 106 96 86
-0.466008 -0.088908    2.3406 217 217 217
 0.843361 -0.187303   1.89429 153 141 125
-0.31643 0.548974  1.27789 144 144 144
-0.468819  0.251204   1.74342 193 193 195
-0.69845 0.313972  1.55246 202 202 202
  0.830601 -0.0945295     1.9395 154 142 126
0.0777134 -0.174649   2.66034 136 132 121
-0.667745  0.132695   1.87463 230 230 232
 0.783213 0.0741602   1.92764 100 88 72
 -0.436076 -0.0639512    2.31026 230 230 230
-0.770889  0.380993   1.42368 215 215 215
  0.860804 0.00380974    1.79884 121 103 83
-0.466612 -0.268046   2.65199 215 215 215
-0.334027 0.0842124   2.07893 218 218 218
-0.784478  0.381403   1.39725 188 185 180
 0.245088 0.0798462    2.2788 160 156 155
-0.173699  0.648966   1.14907 236 237 239
-0.220816 -0.474608   3.06559 168 156 144
0.828368 0.105501  1.89059 105 88 70
-0.644623  0.186577   1.79673 220 220 220
-0.688947  0.256474   1.67807 205 205 205
-0.688108  0.250747   1.67436 207 207 207
-0.603053 0.0417685   2.06508 227 227 227
-0.54796 0.521967  1.24817 227 227 227
-0.498258 0.0347017   2.11591 229 229 229
-0.680353  0.418678   1.38116 218 218 220
-0.644838  0.230822   1.72296 218 218 218
-0.68721 0.221553  1.73065 173 164 155
-0.241768 -0.572552   3.21094 161 151 141
 0.794391 -0.149558   2.09391 140 139 134
-0.0643795   -0.37592    2.96268 161 155 143
 0.669506 -0.340459   2.57213 137 125 109
-0.788931  0.353556   1.46551 190 186 183
 0.846264 -0.166509   1.89201 159 147 131
  0.71023 -0.314482   2.40049 161 148 131
   0.45865 -0.0282908    2.55054 103 93 84
-0.410764 -0.272371   2.65627 218 216 217
-0.0903802  -0.510157    3.19752 177 168 163
-0.153343 -0.109664   2.47231 213 212 208
-0.438405  0.504579    1.3109 208 208 208
-0.554488 0.0761579    2.0257 227 227 229
-0.322536  0.089271    2.0806 208 208 208
 0.31041 0.644833  1.32519 214 215 217
-0.411688  0.561202   1.21287 226 226 228
-0.497023 0.0296645   2.12444 221 221 221
-0.192115 -0.401121   2.95372 177 168 159
-0.523936  0.329481   1.58933 179 179 179
-0.597799   0.39221   1.47622 190 190 188
 0.450471 -0.168921   2.76967 101 91 79
 0.748727 0.0025096   2.20116 123 113 101
-0.449921  0.573299   1.18905 221 221 223
-0.728727  0.384163   1.42834 195 194 190
 -0.6138 0.401625  1.43353 197 197 197
-0.670189  0.273266   1.64331 193 193 193
-0.638443  0.240729   1.70524 200 200 200
-0.260916 -0.442512   3.02026 186 177 168
-0.0912082   0.615102     1.2335 235 236 238
0.742726  0.33143  2.01082 67 58 49
-0.619436  0.406742   1.42913 204 204 204
0.698437 0.486552  1.69372 102 88 79
-0.695761  0.304591    1.5682 212 212 212
 0.83307 0.220643  1.85297 108 96 84
0.0817332 -0.241459   2.77819 136 127 118
-0.577742 0.0843503   1.99363 229 229 231
-0.0453453  -0.299296    2.83949 193 188 184
-0.401974  0.522024   1.29219 222 222 224
  0.786241 -0.0959306    2.09917 146 134 118
-0.601286  0.480204   1.30359 212 212 212
 0.190379 0.0174056   2.37179 156 153 148
 -0.373547 -0.0326498     2.2779 227 227 227
-0.664055   0.38599   1.44619 203 205 204
 0.726477 -0.118893   2.34097 131 122 113
0.690898 0.354227  2.00435 100 90 80
-0.587401  0.153441   1.87799 214 214 216
 0.837349 0.0228417   1.89795 121 109 97
-0.52757 0.506104  1.28287 214 214 214
 0.514754 0.0571878   2.42593 89 81 70
 -0.476588 -0.0813459    2.32631 226 226 226
0.539782  0.43175  1.73597 129 119 110
 0.812508 -0.144975   2.03147 151 139 123
-0.706726  0.226428   1.71367 214 214 214
0.820957 0.313472  1.86445 101 88 79
-0.680863  0.227196   1.71104 209 209 209
-0.604317   0.44506   1.36352 207 207 207
-0.189606 -0.216049   2.64163 196 192 183
-0.659701  0.420965   1.38558 209 209 209
 0.821292 -0.110136   1.96533 152 139 123
 0.71877 0.217703  2.17003 67 57 47
-0.704081  0.369984   1.45032 207 207 209
-0.339647  0.105846   2.04595 220 220 220
 0.832333 -0.117311    1.9218 160 148 132
-0.787498   0.42553   1.33534 226 226 226
-0.41665 0.569139  1.20589 227 227 229
-0.72537 0.294099  1.59069 201 201 201
 0.792362 -0.072617   2.07408 152 139 123
-0.424563   0.55567   1.21694 222 222 222
 0.633078 -0.280109   2.66931 129 119 107
-0.0589337   0.665929    1.16167 241 242 246
-0.434833 0.0775251   2.05845 222 222 222
 0.833518 0.0165061   1.90384 131 119 105
-0.278208  0.604571   1.19577 228 228 228
-0.69575 0.264328  1.64756 207 207 207
 -0.27769 -0.289361   2.73638 196 187 172
 -0.344959 -0.0270149    2.27456 217 217 217
-0.614229  0.224202   1.73672 211 211 211
 0.845032 -0.120382   1.90905 146 133 116
0.602932  0.32407   2.0022 96 86 77
0.618208 0.147369  2.26308 92 79 70
0.712605 0.348005  1.99208 82 70 56
-0.293783  0.576852   1.23347 224 224 224
-0.714587  0.368224   1.46398 210 210 210
-0.472104 0.0683069   2.06274 232 233 237
-0.486282 0.0813772   2.04091 228 228 230
-0.350658  0.562638   1.23961 224 224 224
-0.455015  0.304483   1.65229 193 193 193
-0.241102 -0.240613   2.66307 203 198 192
  -0.322712 -0.00237184     2.23707 152 145 135
-0.363212 0.0913859   2.05885 218 218 216
 0.573679 0.0479717   2.42734 86 74 62
 -0.528354 -0.0010752    2.15571 204 200 197
0.702143 0.210411  2.17456 76 66 54
0.837905 0.064897  1.90439 127 114 98
  0.625025 0.00607294    2.48568 74 64 52
0.0967945 -0.522335   3.25012 111 104 98
-0.691388  0.210695   1.73886 210 210 210
-0.671449  0.388919   1.44165 200 200 200
-0.0444607   0.637223    1.21738 234 238 241
0.102705 0.694653  1.16767 222 222 224
0.540567 0.455978  1.73843 136 127 120
 0.384561 -0.092367   2.62825 111 101 92
-0.109538  0.611864   1.23781 227 227 229
0.712428 0.400231  1.83287 79 65 52
-0.0943985   0.693298    1.11039 230 230 230
-0.716642  0.365234   1.45781 204 204 204
-0.708644  0.230431   1.69448 219 219 219
 0.728099 0.0216444   2.28426 122 118 107
 0.821574 -0.225092    1.9941 155 142 125
-0.352107  0.103418   2.04002 206 206 206
-0.741205  0.303629   1.57155 207 207 207
0.173652 0.672633  1.22481 223 223 225
-0.384677 0.0922248   2.05138 225 225 225
-0.37262 0.551999  1.25063 211 211 213
